ply
format ascii 1.0
element vertex 613
property float x
property float y
property float z
property float densities
property float eigValues0
property float eigValues1
property float eigValues2
end_header
0.06325 0.0939586 0.11486 8.771523e+08 1.770741e-07 3.494977e-09 5.584172e-07
0.06425 0.0939395 0.114521 1.412573e+09 1.787949e-07 1.364545e-09 4.155562e-07
0.06575 0.093914 0.114069 3.831886e+09 1.092054e-09 2.444598e-07 2.669301e-07
0.06625 0.0939076 0.113956 3.831807e+09 1.092063e-09 2.444598e-07 2.6693e-07
0.06675 0.0938949 0.11373 1.860787e+09 4.790637e-07 1.407651e-09 1.637575e-07
0.06775 0.0938694 0.113278 1.528489e+09 4.011169e-07 2.747773e-09 2.109204e-07
0.06825 0.0938567 0.113052 3.67344e+08 5.770932e-09 1.089926e-07 1.213207e-06
0.06875 0.0938121 0.112261 1.539717e+09 5.312711e-09 4.800082e-07 2.782849e-07
0.06925 0.093793 0.111922 1.010128e+09 1.614125e-09 2.876072e-07 4.061993e-07
0.07025 0.0937612 0.111357 1.30295e+09 1.631812e-09 2.44141e-07 4.246258e-07
0.07075 0.0937421 0.111018 5.812084e+08 2.412399e-07 6.250459e-09 6.392282e-07
0.07125 0.0936212 0.108871 6.736679e+08 1.348447e-07 1.032307e-08 6.821184e-07
0.07175 0.0936275 0.108984 8.590982e+08 1.545057e-07 1.352917e-08 5.807238e-07
0.07225 0.0936021 0.108532 5.420566e+08 2.218622e-07 1.798934e-08 6.912081e-07
0.07275 0.0935639 0.107854 3.609431e+08 2.298157e-09 6.315107e-07 4.931818e-07
0.07525 0.0933665 0.104351 1.472403e+09 2.820318e-09 2.038131e-07 5.257909e-07
0.07575 0.0933474 0.104012 1.041507e+09 2.559522e-09 4.544649e-07 2.596084e-07
0.07725 0.0932774 0.102769 1.35844e+09 2.985776e-09 3.035094e-07 4.263145e-07
0.07775 0.0932456 0.102204 7.01711e+08 4.363635e-09 5.230793e-07 4.675343e-07
0.07825 0.0931946 0.1013 6.491699e+08 4.481868e-09 4.169567e-07 7.259837e-07
0.07875 0.0931501 0.100509 5.073639e+08 8.143411e-09 6.865768e-07 4.268522e-07
0.07975 0.0930482 0.0987008 3.183071e+08 3.254433e-09 3.950483e-07 1.154867e-06
0.08025 0.0929591 0.0971188 1.581628e+08 1.21178e-08 1.374052e-06 3.930255e-07
0.08075 0.0929081 0.0962148 1.105865e+09 6.333697e-09 3.482673e-07 5.895643e-07
0.08125 0.0928827 0.0957628 1.036925e+09 7.913241e-09 6.778415e-07 2.041135e-07
0.08175 0.0928508 0.0951978 7.431782e+08 6.015975e-09 8.081856e-07 3.913023e-07
0.08225 0.0927872 0.0940678 2.642371e+08 1.328464e-06 3.281781e-09 1.812485e-07
0.08275 0.0927426 0.0932768 3.072978e+08 7.770802e-09 1.132503e-06 3.74111e-07
0.08375 0.0926344 0.0913558 6.654052e+08 4.728705e-09 4.772773e-07 6.991762e-07
0.08475 0.0925262 0.0894348 2.583356e+08 8.033537e-09 3.324558e-07 8.411811e-07
0.08525 0.0925007 0.0889828 5.802917e+08 7.061578e-09 4.987345e-07 7.055327e-07
0.08575 0.0924625 0.0883048 5.144534e+08 7.434201e-09 3.43596e-07 8.638649e-07
0.08625 0.0923909 0.0871273 3.698803e+08 7.81775e-09 1.387323e-06 3.276132e-07
0.08675 0.0922933 0.0855702 2.547928e+08 6.980718e-09 1.1635e-06 5.626267e-07
0.08725 0.0921732 0.0836537 1.244898e+08 1.090934e-08 8.092098e-07 1.881398e-06
0.08775 0.091978 0.0805393 1.556027e+08 8.744903e-09 8.57694e-07 2.129623e-06
-0.04 0.0933598 0.0922596 8.283492e+08 7.009298e-09 3.132427e-07 7.887267e-07
-0.0395 0.0934038 0.0930507 8.048971e+08 1.384662e-08 5.076907e-07 3.811438e-07
-0.039 0.0934415 0.0937287 7.639245e+08 3.069229e-07 2.120374e-08 4.859648e-07
-0.0385 0.0934477 0.0938417 5.823562e+08 6.075818e-07 2.466239e-07 6.989712e-09
-0.038 0.0935545 0.0957628 7.1798e+08 8.18897e-09 5.275101e-07 6.032405e-07
-0.0375 0.0935859 0.0963278 8.336859e+08 8.074537e-09 4.448376e-07 6.31758e-07
-0.037 0.0936612 0.0976839 3.195773e+08 1.744707e-08 1.104347e-06 3.260095e-07
-0.0365 0.0937429 0.099153 5.12969e+08 1.310425e-08 1.273782e-06 2.98954e-07
-0.036 0.0937994 0.10017 6.610851e+08 3.632671e-09 7.882081e-07 5.064545e-07
-0.035 0.0938685 0.101413 1.048136e+09 3.842066e-09 5.778033e-07 3.444841e-07
-0.0345 0.0939061 0.102091 1.082211e+09 6.016685e-09 3.018106e-07 4.946214e-07
-0.034 0.093925 0.10243 7.193352e+08 1.47896e-08 5.78907e-07 3.716487e-07
-0.0335 0.0939375 0.102656 4.119905e+08 1.598042e-08 8.757985e-07 2.662723e-07
-0.033 0.0939878 0.10356 8.317053e+08 3.957667e-09 5.097659e-07 4.475313e-07
-0.0275 0.0941887 0.107176 1.903791e+09 2.923558e-07 1.390192e-09 3.859836e-07
-0.027 0.0942013 0.107402 1.742291e+09 2.361552e-07 1.424901e-09 4.380476e-07
-0.0265 0.0942201 0.107741 1.034639e+09 4.514557e-07 3.213371e-09 2.850614e-07
-0.026 0.0942327 0.107967 1.105045e+09 5.327758e-07 2.998051e-09 2.438223e-07
-0.0255 0.0942641 0.108532 1.052257e+09 5.420817e-09 2.907267e-07 4.60361e-07
-0.025 0.0942766 0.108759 1.050761e+09 5.443348e-09 2.727054e-07 5.165518e-07
-0.0235 0.0943331 0.109776 1.611548e+09 4.072815e-07 1.516844e-09 2.293907e-07
-0.0215 0.0943897 0.110793 1.554956e+09 3.576669e-09 3.189598e-07 4.02294e-07
-0.021 0.0944022 0.111019 8.975512e+08 5.056119e-07 4.047672e-09 3.186588e-07
-0.0205 0.0944336 0.111584 8.975439e+08 5.056119e-07 4.047644e-09 3.186588e-07
-0.02 0.0944587 0.112036 1.071166e+09 5.508778e-07 2.940851e-09 2.639669e-07
-0.0195 0.0944776 0.112375 4.900417e+08 4.491496e-09 6.339154e-07 3.22553e-07
-0.0185 0.094509 0.11294 1.843806e+09 3.673808e-07 1.354104e-09 2.356137e-07
-0.0165 0.0945467 0.113618 7.580737e+08 5.255798e-07 2.378679e-07 3.268087e-09
-0.016 0.0945529 0.113731 1.770678e+09 3.723614e-07 2.414163e-07 2.29657e-09
-0.0155 0.0945529 0.113731 1.696996e+09 3.794304e-07 1.612788e-09 2.235212e-07
-0.014 0.0945592 0.113844 1.464079e+09 5.19772e-07 1.169699e-07 2.726026e-09
-0.0135 0.0945655 0.113957 1.853001e+09 3.742149e-07 1.930226e-07 3.425869e-09
-0.013 0.0945655 0.113957 1.98518e+09 3.855525e-07 2.072331e-09 1.93367e-07
-0.0125 0.0945655 0.113957 1.843883e+09 3.769312e-07 1.332927e-09 2.08484e-07
-0.012 0.0945718 0.11407 2.093578e+09 3.856326e-07 1.94973e-07 1.36568e-09
-0.0115 0.0945718 0.11407 1.732355e+09 3.885142e-07 1.822787e-07 1.323193e-09
-0.003 0.0945404 0.113505 2.275816e+09 2.20192e-07 3.378865e-07 1.382419e-09
-0.0025 0.0945341 0.113392 1.161377e+09 4.878941e-07 1.521898e-07 1.385234e-09
-0.002 0.0955973 0.136592 4.187674e+08 1.037072e-06 8.515555e-09 2.526956e-07
-0.0015 0.0956199 0.137233 1.947252e+08 5.293543e-09 1.256783e-06 4.788781e-07
-0.001 0.095665 0.138515 2.810757e+08 7.743433e-09 1.316193e-06 5.312668e-07
0 0.0957591 0.141185 2.968216e+08 8.996214e-09 7.764421e-07 6.15574e-07
0.001 0.0958118 0.14268 1.04898e+09 6.015438e-07 5.145761e-09 2.089056e-07
0.0015 0.0958381 0.143428 1.274927e+09 1.680036e-08 3.743107e-07 2.394877e-07
0.002 0.0958532 0.143855 1.132196e+09 2.477897e-08 2.350744e-07 5.46733e-07
0.0025 0.0958645 0.144176 1.121333e+09 4.812565e-07 5.313155e-09 1.799465e-07
0.003 0.095872 0.144389 3.21219e+09 7.369019e-09 2.379388e-07 2.576802e-07
0.0035 0.0958795 0.144603 2.392594e+09 2.879854e-07 5.758763e-09 2.250644e-07
0.004 0.0958795 0.144603 1.877902e+09 3.628881e-07 1.693401e-07 1.925066e-09
0.0045 0.0958833 0.14471 1.298491e+09 1.813592e-07 3.83527e-07 5.628906e-09
0.005 0.0958795 0.144603 1.464882e+09 3.555455e-07 2.000977e-07 1.992081e-09
0.0055 0.0958795 0.144603 1.423555e+09 1.662168e-07 4.09841e-07 4.672941e-09
0.0065 0.0958795 0.144603 1.463729e+09 3.598805e-07 2.115253e-07 1.199511e-09
0.007 0.0958757 0.144496 1.873228e+09 3.719068e-07 1.8599e-07 1.353943e-09
0.0075 0.0958757 0.144496 1.260195e+09 1.718833e-07 4.572389e-07 2.70673e-09
0.0085 0.0958682 0.144283 2.41508e+09 2.270962e-07 1.477803e-09 3.415678e-07
0.01 0.0958532 0.143855 1.407253e+09 4.171268e-07 2.465598e-07 1.59076e-09
0.0105 0.0958532 0.143855 1.113883e+09 3.325767e-07 2.013906e-09 3.791712e-07
0.011 0.0958456 0.143642 6.448367e+08 1.84153e-07 6.568371e-07 5.744659e-09
0.0115 0.0958419 0.143535 7.74054e+08 2.711231e-07 4.610816e-07 4.819185e-09
0.013 0.0958231 0.143001 1.247212e+09 1.873867e-07 3.452505e-09 4.840356e-07
0.0135 0.0958155 0.142787 1.366743e+09 5.7145e-07 1.603218e-09 1.390836e-07
0.014 0.0958118 0.14268 2.050732e+09 2.518209e-07 1.41288e-09 3.76847e-07
0.0145 0.0958005 0.14236 1.337508e+09 4.388274e-07 1.650718e-09 2.287548e-07
0.015 0.0958005 0.14236 1.35794e+09 5.733273e-07 2.376007e-09 1.281868e-07
0.0165 0.0957742 0.141612 1.722869e+09 3.761959e-07 2.177041e-09 2.313191e-07
0.017 0.0957666 0.141399 1.722862e+09 3.76196e-07 2.177057e-09 2.313191e-07
0.0175 0.0957553 0.141078 1.627744e+09 3.878567e-07 1.548854e-09 2.299104e-07
0.0195 0.095714 0.139903 2.204914e+09 1.844233e-09 2.626158e-07 3.574671e-07
0.0205 0.0956914 0.139262 1.250319e+09 4.432619e-07 1.814619e-09 1.954751e-07
0.021 0.0956801 0.138942 1.634238e+09 3.955563e-07 1.589433e-09 2.293064e-07
0.022 0.09565 0.138087 1.706367e+09 3.993168e-09 4.467789e-07 2.45005e-07
0.0225 0.0956274 0.137446 1.326265e+09 4.850233e-07 7.175057e-09 2.400577e-07
0.023 0.0956086 0.136912 9.84972e+08 5.038702e-07 7.540118e-09 2.186514e-07
0.0235 0.0956011 0.136699 5.907017e+08 5.207148e-07 1.918264e-08 2.537701e-07
0.024 0.0954619 0.132747 1.253665e+08 1.506491e-06 7.627436e-09 3.726167e-07
0.0245 0.0953941 0.130824 6.697731e+08 3.632778e-07 6.49438e-07 1.727027e-07
0.025 0.0954092 0.131251 5.443716e+08 7.707477e-07 1.156904e-08 4.033066e-07
0.0255 0.0954393 0.132106 5.263902e+08 1.313387e-08 7.179506e-07 4.835859e-07
0.026 0.0954619 0.132747 1.493894e+09 2.547048e-07 2.307978e-09 5.53082e-07
0.0265 0.0954619 0.132747 1.493894e+09 2.547048e-07 2.307978e-09 5.53082e-07
0.027 0.0954769 0.133174 1.132323e+09 6.896723e-07 6.299074e-09 1.731804e-07
0.0275 0.0954957 0.133708 6.141181e+08 2.314616e-07 2.12996e-09 7.143985e-07
0.0295 0.0955371 0.134883 1.222337e+09 6.565699e-07 2.004823e-09 1.438412e-07
0.03 0.0955484 0.135203 9.909163e+08 5.168744e-07 5.03328e-09 1.976362e-07
0.0305 0.0955597 0.135524 1.938866e+09 5.285066e-09 2.618208e-07 3.195208e-07
0.031 0.095571 0.135844 1.181948e+09 4.543499e-07 5.784756e-09 1.876969e-07
0.0315 0.0955785 0.136058 1.428522e+09 4.161687e-07 6.248585e-09 1.822431e-07
0.032 0.095586 0.136272 2.107205e+09 2.14026e-07 3.212958e-07 3.845155e-09
0.0325 0.095586 0.136272 1.815288e+09 3.861014e-07 1.639357e-09 1.837893e-07
0.034 0.0955935 0.136485 1.896337e+09 3.750831e-07 4.526784e-09 2.002602e-07
0.0345 0.0955935 0.136485 2.308236e+09 2.811614e-07 4.641199e-09 2.737262e-07
0.035 0.0955935 0.136485 4.563807e+08 8.810763e-07 8.199501e-08 2.517071e-09
0.0355 0.0955935 0.136485 1.481384e+09 5.215259e-07 2.74511e-09 1.232407e-07
0.036 0.0955898 0.136378 9.570172e+08 5.447408e-07 1.895611e-07 2.134663e-09
0.0365 0.0955898 0.136378 1.472607e+09 5.341147e-07 2.932763e-09 1.489171e-07
0.038 0.0955785 0.136058 1.895226e+09 4.49549e-07 2.456855e-07 1.447127e-09
0.0385 0.095571 0.135844 1.793451e+09 2.263766e-07 4.356657e-07 1.815531e-09
0.039 0.095571 0.135844 1.712364e+09 1.505724e-09 3.38725e-07 3.500017e-07
0.041 0.0955484 0.135203 2.135257e+09 2.279907e-07 1.533175e-09 3.781377e-07
0.0415 0.0955446 0.135097 1.805607e+09 3.425896e-07 1.728658e-09 2.862644e-07
0.0435 0.0955258 0.134563 7.679419e+08 8.052353e-07 1.360083e-07 2.439365e-09
0.045 0.095507 0.134028 1.616581e+09 4.452814e-07 1.368072e-09 2.160815e-07
0.046 0.0954957 0.133708 1.537633e+09 4.482471e-07 1.468996e-09 2.083624e-07
0.048 0.0954656 0.132854 1.662971e+09 4.087192e-07 3.236478e-09 2.01766e-07
0.0485 0.0954543 0.132533 8.267169e+08 2.273813e-09 4.348769e-07 2.604877e-07
0.0495 0.0954318 0.131892 1.354127e+09 4.852405e-07 1.115077e-08 2.295999e-07
0.05 0.0954205 0.131572 1.02908e+09 6.10748e-07 1.148337e-08 1.886327e-07
0.0505 0.0954092 0.131251 1.20622e+09 5.673663e-07 6.495767e-09 2.39996e-07
0.051 0.0953979 0.130931 6.510676e+08 7.316115e-07 1.426395e-07 1.630707e-08
0.0515 0.0953791 0.130397 1.125e+09 1.680034e-08 3.13667e-07 4.561304e-07
0.052 0.0953603 0.129863 6.940171e+08 2.711885e-08 2.035325e-07 7.73249e-07
0.0525 0.0953415 0.129329 6.940269e+08 2.711886e-08 2.035325e-07 7.73249e-07
0.053 0.0953189 0.128688 6.825656e+08 1.104139e-08 3.974791e-07 6.076941e-07
0.0535 0.0952662 0.127192 3.025534e+08 7.595427e-09 4.211176e-07 1.316799e-06
0.054 0.0952474 0.126658 2.567974e+08 3.643786e-07 7.436134e-09 1.524075e-06
0.0545 0.095206 0.125483 1.80565e+08 1.449383e-06 8.416095e-09 2.899576e-07
0.055 0.0951683 0.124805 7.58036e+08 5.541518e-09 3.524435e-07 7.143548e-07
0.057 0.0950302 0.122319 9.089362e+08 1.977242e-09 5.2495e-07 3.913948e-07
0.0575 0.0950113 0.12198 5.961771e+08 7.339707e-09 4.561348e-07 7.474113e-07
0.058 0.0949611 0.121076 7.828253e+08 6.912285e-09 7.489351e-07 5.314935e-07
0.0585 0.0949171 0.120285 3.127907e+08 9.978382e-07 7.484714e-09 3.911014e-07
0.059 0.0948983 0.119946 3.127884e+08 9.978384e-07 7.484697e-09 3.911013e-07
0.0595 0.0946911 0.116217 1.606318e+09 3.945611e-07 1.737559e-07 2.76627e-09
0.06 0.0946848 0.116104 1.600511e+09 4.074746e-07 1.904832e-09 1.797367e-07
0.0625 0.0946283 0.115087 1.869693e+09 2.122967e-07 3.534967e-07 1.172522e-09
0.0665 0.0945655 0.113957 1.522049e+09 4.170398e-07 1.246814e-09 1.923217e-07
0.067 0.0945529 0.113731 7.085812e+08 5.924293e-07 1.681048e-07 1.90286e-09
0.0675 0.0945404 0.113505 1.128829e+09 4.760264e-07 4.011633e-09 1.922987e-07
0.068 0.0945278 0.113279 1.546304e+09 4.089304e-07 7.398588e-09 2.816971e-07
0.0685 0.0945027 0.112827 3.673537e+08 5.770901e-09 1.089926e-07 1.213207e-06
0.069 0.094465 0.112149 9.789503e+08 5.250028e-07 4.268786e-09 2.399055e-07
0.07 0.0944273 0.111471 1.621444e+09 1.963635e-09 3.892143e-07 2.724394e-07
0.0705 0.0944085 0.111132 1.426723e+09 2.318077e-09 4.287098e-07 2.739317e-07
0.071 0.0943834 0.11068 2.860667e+08 3.504266e-08 1.25464e-06 4.842586e-07
0.0715 0.0942955 0.109098 8.545223e+08 1.389295e-07 2.152365e-08 7.379533e-07
0.072 0.0942829 0.108872 8.706012e+08 3.004435e-08 2.863987e-07 5.672743e-07
0.0725 0.0942201 0.107741 6.513891e+08 2.656469e-09 3.490001e-07 7.795584e-07
0.0775 0.0939313 0.102543 6.808767e+08 3.372707e-09 2.677554e-07 5.761647e-07
0.078 0.0938999 0.101978 6.21174e+08 2.428369e-09 2.827209e-07 7.400188e-07
0.0785 0.0938496 0.101074 6.491617e+08 4.48184e-09 4.169568e-07 7.259836e-07
0.079 0.0938057 0.100283 5.75546e+08 8.350837e-09 4.124224e-07 7.622709e-07
0.0795 0.0937366 0.09904 3.183065e+08 3.254418e-09 3.950486e-07 1.154867e-06
0.08 0.093655 0.0975709 1.581634e+08 1.21178e-08 1.374051e-06 3.930256e-07
0.0805 0.0935796 0.0962149 6.207588e+08 1.139003e-08 6.636133e-07 3.68365e-07
0.0815 0.0935356 0.0954238 3.95677e+08 5.85511e-09 9.297843e-07 1.929863e-07
0.082 0.0934729 0.0942938 4.426648e+08 8.760987e-09 2.638903e-07 1.068815e-06
0.0825 0.0934477 0.0938417 5.232789e+08 7.167251e-09 1.005362e-06 2.928722e-07
0.083 0.0933473 0.0920336 6.059668e+08 3.116036e-09 3.647519e-07 9.510427e-07
0.0835 0.0933033 0.0912426 6.654052e+08 4.728717e-09 4.772771e-07 6.991763e-07
0.085 0.0931526 0.0885304 6.276947e+08 3.686721e-09 5.928554e-07 3.665583e-07
0.0855 0.0931275 0.0880784 8.4345e+08 6.07108e-09 4.863385e-07 6.152405e-07
0.086 0.0930692 0.0871269 3.302891e+08 7.647882e-09 8.428302e-07 4.50213e-07
0.0865 0.0929875 0.0858094 3.729054e+08 7.747404e-09 1.201492e-06 5.122529e-07
0.087 0.0928612 0.0837731 2.20445e+08 1.488529e-08 1.253858e-06 7.612953e-07
0.0875 0.0927127 0.0813775 1.100309e+08 1.530275e-08 1.563393e-06 7.727727e-07
-0.04125 0.0939972 0.0915814 1.385976e+08 2.183008e-06 3.272219e-08 1.243925e-07
-0.04075 0.0940157 0.0919204 5.621386e+08 4.11424e-09 7.124729e-07 4.410662e-07
-0.04025 0.0940591 0.0927115 7.431274e+08 4.64175e-09 6.045411e-07 5.295429e-07
-0.03975 0.0941024 0.0935026 9.607519e+08 1.010013e-08 4.520375e-07 3.473711e-07
-0.03925 0.094121 0.0938416 1.833214e+09 6.950627e-09 3.754516e-07 2.785844e-07
-0.03875 0.0941272 0.0939546 1.399294e+09 2.417685e-07 7.142068e-09 3.948995e-07
-0.03825 0.0941396 0.0941807 9.963997e+08 2.922094e-07 7.147397e-09 4.76182e-07
-0.03775 0.0942511 0.0962149 2.551779e+08 1.144898e-08 1.196913e-06 3.946793e-07
-0.03725 0.0943378 0.0977971 2.293414e+08 9.261426e-09 7.56587e-07 1.052181e-06
-0.03675 0.0944307 0.0994922 4.656698e+08 8.485489e-09 5.468219e-07 7.779378e-07
-0.03575 0.094505 0.100848 7.721702e+08 3.360757e-09 6.280469e-07 4.536232e-07
-0.03375 0.0946041 0.102657 3.620981e+08 9.344732e-07 1.302043e-08 1.810293e-07
-0.02775 0.0948765 0.107629 1.027767e+09 5.447978e-07 2.453548e-07 1.708637e-09
-0.02675 0.0948951 0.107968 1.727141e+09 2.059091e-09 3.803844e-07 3.258335e-07
-0.02625 0.0949137 0.108307 1.827658e+09 3.102435e-09 3.69819e-07 3.390839e-07
-0.02575 0.0949385 0.108759 1.591971e+09 2.944749e-07 5.105972e-09 4.091521e-07
-0.02525 0.0949509 0.108985 1.591949e+09 2.944749e-07 5.105973e-09 4.091521e-07
-0.02475 0.0949632 0.109211 1.171595e+09 1.812971e-07 5.554458e-07 4.230849e-09
-0.02425 0.0949818 0.10955 2.267099e+09 1.228813e-09 3.443899e-07 2.501611e-07
-0.02375 0.0949942 0.109776 2.181489e+09 1.665788e-09 3.601e-07 2.500275e-07
-0.02325 0.0950128 0.110115 1.61902e+09 3.943641e-07 1.730426e-09 2.462707e-07
-0.02275 0.0950314 0.110454 1.618974e+09 3.94364e-07 1.730432e-09 2.462707e-07
-0.02175 0.0950623 0.111019 1.554952e+09 3.57666e-09 3.189599e-07 4.02294e-07
-0.02125 0.0950747 0.111245 1.554952e+09 3.57672e-09 3.189598e-07 4.022941e-07
-0.02075 0.0951057 0.111811 8.58399e+08 5.121031e-07 2.298588e-09 2.82295e-07
-0.02025 0.0951304 0.112263 1.556811e+09 2.131558e-09 3.217287e-07 3.808088e-07
-0.01975 0.095149 0.112602 1.556807e+09 2.131585e-09 3.217287e-07 3.808088e-07
-0.01925 0.0951614 0.112828 1.792867e+09 3.728357e-07 1.826074e-09 2.540872e-07
-0.01875 0.09518 0.113167 1.687389e+09 4.514655e-07 1.932667e-07 1.590833e-09
-0.01825 0.0951862 0.11328 1.687372e+09 4.514653e-07 1.590841e-09 1.932667e-07
-0.01625 0.0952233 0.113958 1.929475e+09 2.066502e-07 3.824304e-07 2.264065e-09
-0.01575 0.0952295 0.114071 2.372212e+09 2.818123e-07 2.22611e-09 2.727123e-07
-0.01525 0.0952295 0.114071 1.90875e+09 3.413875e-07 2.454607e-09 2.239549e-07
-0.01475 0.0952295 0.114071 1.764682e+09 3.918164e-07 1.869022e-07 1.720354e-09
-0.01425 0.0952295 0.114071 2.162601e+09 2.20024e-07 3.711137e-07 1.482282e-09
-0.01375 0.0952233 0.113958 2.321387e+09 2.759242e-07 2.891362e-07 3.157907e-09
-0.01325 0.0952357 0.114184 1.526838e+09 3.205631e-07 2.632961e-07 3.880397e-09
-0.01275 0.0952357 0.114184 1.56908e+09 3.743555e-07 1.694259e-09 2.278603e-07
-0.01225 0.0952357 0.114184 1.909298e+09 3.419198e-07 1.866541e-09 2.143209e-07
-0.01175 0.0952419 0.114297 3.581663e+09 2.255037e-07 1.630755e-09 2.848773e-07
-0.01125 0.0952357 0.114184 1.908727e+09 3.446949e-07 2.130196e-07 1.426938e-09
-0.00425 0.0952109 0.113732 3.488046e+09 2.271444e-07 1.115058e-09 2.816317e-07
-0.00375 0.0952109 0.113732 1.875491e+09 3.409131e-07 2.114061e-07 1.158197e-09
-0.00325 0.0952109 0.113732 2.275816e+09 2.20192e-07 1.38241e-09 3.378863e-07
-0.00275 0.0952048 0.113619 2.275785e+09 2.20192e-07 3.378865e-07 1.382419e-09
-0.00225 0.0951986 0.113506 1.161377e+09 4.878941e-07 1.521898e-07 1.385236e-09
-0.00175 0.0962141 0.135845 4.187674e+08 1.037073e-06 8.515596e-09 2.526956e-07
-0.00125 0.0962437 0.1367 5.661588e+08 9.417233e-09 4.616768e-07 7.626095e-07
-0.00075 0.0962511 0.136913 5.661738e+08 9.417254e-09 7.626097e-07 4.61677e-07
-0.00025 0.0963251 0.13905 2.963242e+08 4.850443e-09 1.290127e-06 8.608046e-07
0.00025 0.0963807 0.140652 4.028268e+08 1.016556e-06 3.82567e-09 3.295552e-07
0.00075 0.0963992 0.141186 5.132229e+08 8.175319e-07 2.665775e-09 4.310545e-07
0.00125 0.0964251 0.141933 5.940182e+08 7.891672e-07 2.71229e-09 4.306187e-07
0.00175 0.096451 0.142681 3.35767e+08 1.114529e-08 2.681729e-07 1.409271e-06
0.00225 0.0964806 0.143535 7.072186e+08 8.002735e-09 6.732423e-07 3.302192e-07
0.00275 0.0964954 0.143963 5.184629e+08 6.844676e-07 6.810903e-09 2.459838e-07
0.00325 0.0965065 0.144283 6.347456e+08 7.13192e-07 1.127093e-08 1.200246e-07
0.00375 0.0965139 0.144497 1.319874e+09 6.084088e-07 6.624496e-09 1.241128e-07
0.00425 0.0965176 0.144603 1.890994e+09 3.585522e-07 3.515634e-09 2.350874e-07
0.00475 0.0965213 0.14471 1.890989e+09 3.585521e-07 3.515615e-09 2.350874e-07
0.00525 0.0965213 0.14471 1.706122e+09 4.07013e-07 1.733857e-07 1.413444e-09
0.00575 0.0965213 0.14471 2.450427e+09 2.824502e-07 3.55205e-09 2.265718e-07
0.00625 0.0965213 0.14471 1.944518e+09 3.759445e-07 3.37956e-09 1.789119e-07
0.00675 0.0965213 0.14471 1.939702e+09 3.751737e-07 1.861168e-09 1.800919e-07
0.00725 0.0965213 0.14471 2.34255e+09 2.028698e-07 3.163564e-07 2.374478e-09
0.00775 0.0965213 0.14471 9.543823e+08 4.577624e-07 2.007595e-09 2.134403e-07
0.00825 0.0965176 0.144603 1.639367e+09 3.858735e-07 1.672877e-07 2.431682e-09
0.00875 0.0965176 0.144603 2.076567e+09 2.991013e-07 2.316976e-09 2.302954e-07
0.00925 0.0965102 0.14439 1.677188e+09 3.946527e-07 1.591686e-09 1.917162e-07
0.00975 0.0965065 0.144283 1.848247e+09 3.608323e-07 1.881418e-07 1.735617e-09
0.01025 0.0965028 0.144176 7.767694e+08 5.510092e-07 1.726799e-07 2.221955e-09
0.01125 0.0964917 0.143856 2.283843e+09 3.119923e-07 1.123197e-09 2.355824e-07
0.01375 0.0964584 0.142895 1.438483e+09 4.313244e-07 1.676577e-07 1.391346e-09
0.01425 0.0964547 0.142788 1.880339e+09 3.349689e-07 1.512797e-09 2.256849e-07
0.01475 0.0964473 0.142574 2.248389e+09 3.219543e-07 1.358559e-09 2.356539e-07
0.01525 0.0964399 0.142361 1.642723e+09 3.976806e-07 1.637163e-09 1.828123e-07
0.01575 0.0964325 0.142147 6.248513e+08 1.080257e-07 4.563608e-09 7.210369e-07
0.01625 0.0964214 0.141827 1.651959e+09 3.681117e-07 1.867887e-09 2.259092e-07
0.01675 0.096414 0.141613 1.930398e+09 3.717664e-07 2.362189e-09 2.276909e-07
0.01725 0.0964029 0.141292 1.336844e+09 4.976666e-07 2.238791e-09 1.800088e-07
0.01775 0.0963955 0.141079 1.287807e+09 5.006945e-07 1.910672e-09 1.802538e-07
0.01825 0.0963844 0.140758 1.742446e+09 3.784356e-07 2.401007e-09 2.304317e-07
0.01875 0.0963733 0.140438 1.081125e+09 2.188205e-09 3.08439e-07 3.746023e-07
0.01925 0.0963584 0.140011 1.144782e+09 4.63047e-07 2.015561e-09 2.275162e-07
0.01975 0.0963473 0.13969 9.584853e+08 5.970751e-09 4.117057e-07 3.630929e-07
0.02025 0.0963362 0.13937 1.234313e+09 5.484236e-07 6.066979e-09 2.17646e-07
0.02075 0.0963251 0.13905 1.494875e+09 4.517798e-07 3.033777e-09 2.416626e-07
0.02125 0.0963066 0.138515 1.494875e+09 4.517799e-07 3.03376e-09 2.416627e-07
0.02175 0.0962881 0.137981 9.691344e+08 6.956409e-07 5.409079e-09 2.638905e-07
0.02225 0.0962548 0.13702 7.380083e+08 1.570996e-08 2.593173e-07 7.617189e-07
0.02275 0.0962437 0.1367 6.252819e+08 5.298804e-07 1.326608e-08 2.446024e-07
0.02325 0.09624 0.136593 4.298472e+08 5.813791e-07 2.345199e-08 2.59955e-07
0.02375 0.0960771 0.131893 1.523266e+08 1.522393e-06 1.522202e-07 3.631913e-07
0.02425 0.0959994 0.12965 5.470465e+08 9.798653e-07 2.445131e-07 5.785095e-08
0.02475 0.0960142 0.130078 5.067621e+08 4.488497e-07 4.233533e-09 9.175246e-07
0.02525 0.0960364 0.130719 1.2312e+09 7.038817e-09 5.940078e-07 4.683434e-07
0.02575 0.0960734 0.131787 6.39516e+08 6.902101e-07 1.022714e-08 3.650847e-07
0.02625 0.0960734 0.131787 6.39516e+08 6.902101e-07 1.022714e-08 3.650847e-07
0.02675 0.0960882 0.132214 8.26854e+08 2.759733e-07 6.175992e-09 6.754962e-07
0.02725 0.096103 0.132641 8.595568e+08 4.994743e-09 5.434544e-07 4.706287e-07
0.02775 0.0961215 0.133175 1.226059e+09 2.046065e-09 3.600787e-07 4.235589e-07
0.02975 0.0961697 0.134564 1.294772e+09 5.070849e-07 2.073041e-09 2.785748e-07
0.03025 0.0961808 0.134884 5.98887e+08 1.948023e-09 5.113308e-07 4.086637e-07
0.03125 0.096203 0.135525 1.941671e+09 1.833233e-09 3.706752e-07 2.898232e-07
0.03175 0.0962141 0.135845 1.209574e+09 3.899618e-09 3.144273e-07 4.013595e-07
0.03225 0.0962252 0.136166 1.292744e+09 1.941552e-07 1.096101e-08 4.57229e-07
0.03275 0.0962289 0.136273 6.730849e+08 1.300175e-07 5.048156e-09 6.506346e-07
0.03325 0.0962326 0.136379 8.123024e+08 9.376011e-08 6.531249e-07 6.827954e-09
0.03425 0.09624 0.136593 1.053773e+09 1.251573e-07 5.842427e-09 5.806942e-07
0.03475 0.09624 0.136593 9.551963e+08 1.225228e-07 1.095536e-08 5.897522e-07
0.03675 0.09624 0.136593 2.103816e+09 3.86534e-07 1.807892e-07 1.473928e-09
0.03725 0.0962363 0.136486 1.67412e+09 2.006771e-07 3.277816e-09 3.677565e-07
0.03775 0.0962363 0.136486 1.857001e+09 3.670042e-07 1.902037e-07 1.740522e-09
0.03875 0.0962289 0.136273 1.166747e+09 5.525374e-07 3.599081e-09 1.173151e-07
0.03925 0.0962289 0.136273 1.472564e+09 5.388421e-07 2.284944e-09 1.249432e-07
0.03975 0.0962215 0.136059 1.472571e+09 5.388421e-07 2.284944e-09 1.249432e-07
0.04025 0.0962141 0.135845 1.472564e+09 5.388423e-07 2.284941e-09 1.249432e-07
0.04375 0.0961808 0.134884 1.615206e+09 3.63891e-07 1.502418e-09 2.54585e-07
0.04625 0.0961474 0.133923 1.920985e+09 3.618005e-07 1.86973e-09 2.245873e-07
0.04725 0.0961289 0.133389 1.730367e+09 3.782318e-07 1.728376e-09 2.186672e-07
0.04775 0.0961215 0.133175 1.834995e+09 3.964112e-07 3.404897e-09 2.070085e-07
0.04825 0.0961104 0.132855 2.901248e+09 2.149833e-09 3.220206e-07 2.457201e-07
0.04875 0.0960993 0.132534 3.05005e+09 1.477793e-09 3.18654e-07 2.473476e-07
0.04925 0.0960882 0.132214 1.412975e+09 1.348591e-08 4.341505e-07 2.75426e-07
0.04975 0.0960771 0.131893 1.354069e+09 4.852406e-07 1.115078e-08 2.295999e-07
0.05025 0.0960586 0.131359 1.316609e+09 5.012075e-07 1.05341e-08 2.173136e-07
0.05075 0.0960401 0.130825 1.19044e+09 5.704486e-07 1.674578e-08 2.964001e-07
0.05125 0.0960142 0.130078 6.047944e+08 7.251271e-09 3.099074e-07 7.472461e-07
0.05175 0.095992 0.129437 7.929452e+08 4.879194e-09 6.514832e-07 3.683099e-07
0.05225 0.0959698 0.128796 2.656332e+08 2.437465e-07 9.761401e-09 1.145023e-06
0.05275 0.0959364 0.127835 3.025551e+08 7.595383e-09 4.211178e-07 1.316799e-06
0.05325 0.0958883 0.126446 3.137677e+08 7.950118e-09 5.506122e-07 1.040966e-06
0.05375 0.0958587 0.125592 3.137726e+08 7.950245e-09 5.506125e-07 1.040966e-06
0.05675 0.095663 0.121982 3.967041e+08 1.06371e-06 4.406665e-09 2.715266e-07
0.05725 0.0956383 0.12153 6.135412e+08 8.312059e-09 6.087738e-07 5.566199e-07
0.05775 0.0955763 0.120399 8.194134e+08 6.729198e-09 7.750031e-07 4.063477e-07
0.05825 0.0955392 0.119721 2.777738e+08 1.196604e-06 7.401374e-09 2.808992e-07
0.05875 0.0953534 0.116331 1.003456e+08 8.481896e-08 5.476437e-07 1.654205e-06
0.05925 0.0953472 0.116218 1.010222e+08 8.29346e-08 4.692199e-07 9.647136e-07
0.05975 0.095341 0.116105 2.067322e+09 3.086737e-07 2.244899e-09 2.377607e-07
0.06025 0.0953286 0.115879 2.060808e+09 3.435466e-07 2.274945e-07 1.626249e-09
0.06575 0.0952357 0.114184 3.838539e+09 1.092421e-09 2.445383e-07 2.667266e-07
0.06625 0.0952295 0.114071 2.039498e+09 2.2943e-07 3.328241e-07 1.394473e-09
0.06675 0.0952171 0.113845 1.822225e+09 4.391144e-07 1.438649e-09 1.74772e-07
0.06725 0.0952109 0.113732 1.489762e+09 4.159423e-07 1.78831e-07 1.300711e-09
0.06775 0.0951986 0.113506 3.461493e+09 2.72606e-09 2.775683e-07 2.587594e-07
0.06825 0.09518 0.113167 2.154491e+09 4.802153e-09 3.561401e-07 2.592244e-07
0.06875 0.0951428 0.112489 5.149649e+08 3.122212e-09 2.555016e-07 7.170698e-07
0.07025 0.0950809 0.111358 1.621458e+09 1.963635e-09 3.892143e-07 2.724394e-07
0.07075 0.0950561 0.110906 4.496995e+08 1.493835e-08 3.326912e-07 5.768209e-07
0.07125 0.094957 0.109098 8.791328e+08 1.477281e-08 5.606394e-07 2.834566e-07
0.07175 0.0949509 0.108985 8.791339e+08 1.477279e-08 5.606393e-07 2.834567e-07
0.07225 0.0949075 0.108194 8.791328e+08 1.477284e-08 5.606394e-07 2.834567e-07
0.07275 0.0948703 0.107516 6.051412e+08 3.455805e-09 6.351661e-07 3.279257e-07
0.07325 0.0948332 0.106838 7.460824e+08 2.945963e-09 7.329075e-07 3.431487e-07
0.07475 0.0947093 0.104578 1.026657e+09 5.528052e-07 6.441081e-09 2.506381e-07
0.07525 0.0946846 0.104126 1.230742e+09 2.116205e-09 2.414946e-07 4.750568e-07
0.07625 0.0946474 0.103448 1.594417e+09 1.647849e-09 3.663323e-07 2.904543e-07
0.07675 0.0946226 0.102996 1.5944e+09 1.647869e-09 3.663323e-07 2.904542e-07
0.07775 0.0945793 0.102205 6.572588e+08 3.838547e-09 2.84308e-07 7.171e-07
0.07825 0.0945421 0.101526 6.599052e+08 7.300927e-09 2.556183e-07 8.878703e-07
0.07875 0.094505 0.100848 5.837634e+08 2.717064e-09 2.722653e-07 9.022181e-07
0.08025 0.0942758 0.0966669 1.581619e+08 1.211783e-08 1.374052e-06 3.930256e-07
0.08075 0.0942201 0.0956498 7.961233e+08 7.927788e-09 3.30281e-07 6.252907e-07
0.08125 0.0942077 0.0954238 5.927132e+08 4.751548e-09 1.746927e-07 7.977505e-07
0.08175 0.0941644 0.0946327 8.186981e+08 6.904352e-07 8.169232e-09 2.57131e-07
0.08225 0.0941334 0.0940677 6.062975e+08 7.662095e-09 3.294085e-07 9.30395e-07
0.08275 0.0940343 0.0922595 3.531861e+08 7.091745e-09 1.064336e-06 7.698931e-07
0.08325 0.0939662 0.0910163 4.487235e+08 4.634829e-09 4.572828e-07 7.974817e-07
0.08375 0.0939229 0.0902252 3.958252e+08 4.303292e-09 9.842092e-07 4.238485e-07
0.08475 0.0938052 0.088078 7.711943e+08 2.544414e-09 2.970772e-07 6.272603e-07
0.08525 0.0937843 0.0877255 8.434552e+08 6.071101e-09 4.863386e-07 6.152405e-07
0.08575 0.0937181 0.0866475 3.729094e+08 7.747404e-09 5.122529e-07 1.201492e-06
0.08625 0.0936447 0.0854497 3.7291e+08 7.747474e-09 1.201492e-06 5.122529e-07
0.08675 0.0935418 0.0837728 2.963982e+08 7.99449e-09 1.164661e-06 6.201669e-07
0.08725 0.0934903 0.0829344 1.815398e+08 1.655192e-08 1.460758e-06 6.293912e-07
-0.0415 0.0946844 0.0918072 4.085144e+08 2.317175e-08 7.709704e-07 4.469677e-07
-0.041 0.0947149 0.0923723 5.634232e+08 6.862675e-09 5.533095e-07 4.78758e-07
-0.04 0.0947821 0.0936155 1.684017e+09 4.08999e-07 3.614377e-09 2.634083e-07
-0.0395 0.0948004 0.0939546 6.125137e+08 5.916036e-07 2.439823e-07 1.958693e-09
-0.039 0.0948126 0.0941806 6.12513e+08 5.916037e-07 2.439822e-07 1.958668e-09
-0.0385 0.0948248 0.0944066 5.471968e+08 6.412102e-07 2.288133e-08 2.796433e-07
-0.038 0.0949042 0.0958759 1.802344e+08 1.496895e-08 1.941844e-06 8.695599e-07
-0.0375 0.0950569 0.0987013 1.358376e+08 9.585479e-09 8.530682e-07 1.132322e-06
-0.037 0.0950874 0.0992664 1.358376e+08 9.585479e-09 8.530682e-07 1.132322e-06
-0.036 0.0951912 0.101188 5.793073e+08 9.48758e-07 5.02768e-09 3.871707e-07
-0.034 0.0952706 0.102657 9.148231e+08 5.446306e-07 1.27473e-08 2.577473e-07
-0.0315 0.0954171 0.105369 7.409245e+08 7.013931e-07 2.095677e-09 1.788023e-07
-0.0305 0.095466 0.106274 1.207013e+09 1.927033e-09 2.516134e-07 5.293906e-07
-0.03 0.0954843 0.106613 8.403091e+08 6.681419e-07 1.706954e-07 2.180324e-09
-0.0275 0.0955637 0.108082 1.391594e+09 4.564426e-07 1.672885e-09 2.561452e-07
-0.027 0.0955759 0.108308 1.336475e+09 2.756652e-07 4.829358e-07 1.82251e-09
-0.0265 0.0955942 0.108647 1.198225e+09 6.817655e-07 1.899471e-09 1.483851e-07
-0.026 0.0956125 0.108986 1.332583e+09 5.220816e-07 3.98e-09 2.42263e-07
-0.0255 0.0956247 0.109212 8.995368e+08 5.032668e-07 2.785264e-09 2.700982e-07
-0.025 0.0956308 0.109325 9.342307e+08 4.990864e-07 2.986337e-09 2.365387e-07
-0.0245 0.095643 0.109551 2.267064e+09 1.228825e-09 3.443901e-07 2.501611e-07
-0.024 0.0956553 0.109777 9.527489e+08 5.485719e-07 1.749948e-09 1.733754e-07
-0.0235 0.0956797 0.110229 1.314468e+09 4.406068e-07 1.796562e-09 2.332223e-07
-0.023 0.095698 0.110568 1.618997e+09 3.943641e-07 1.730434e-09 2.462707e-07
-0.0225 0.0957163 0.110907 1.407018e+09 4.149651e-07 1.810417e-09 2.517718e-07
-0.022 0.0957285 0.111133 8.082176e+08 5.479784e-07 1.742319e-09 2.218348e-07
-0.0215 0.0957469 0.111472 1.554956e+09 3.576705e-09 3.189598e-07 4.02294e-07
-0.021 0.0957713 0.111924 9.584633e+08 6.335386e-07 2.451531e-09 2.297848e-07
-0.0205 0.0957957 0.112377 1.023224e+09 6.25093e-07 3.289988e-09 2.220086e-07
-0.02 0.0958079 0.112603 9.556893e+08 2.168568e-07 2.007916e-09 5.384692e-07
-0.0195 0.0958262 0.112942 1.175361e+09 6.500337e-07 2.08436e-09 1.20147e-07
-0.019 0.0958445 0.113281 1.249416e+09 1.963081e-07 2.016259e-09 4.525586e-07
-0.0185 0.0958507 0.113394 1.68741e+09 4.514656e-07 1.590833e-09 1.932666e-07
-0.0165 0.0958873 0.114072 1.349194e+09 3.874936e-07 1.591825e-09 2.128673e-07
-0.0155 0.0958934 0.114185 2.032699e+09 4.401178e-07 1.676817e-07 1.983095e-09
-0.015 0.0958995 0.114298 2.055127e+09 3.92209e-07 1.90438e-07 3.319128e-09
-0.0145 0.0959056 0.114411 3.631187e+09 2.264923e-07 2.243503e-09 2.907687e-07
-0.014 0.0959056 0.114411 1.757485e+09 4.427667e-07 1.87128e-07 5.647488e-09
-0.0135 0.0959056 0.114411 1.10767e+09 1.668585e-07 4.876221e-07 4.825492e-09
-0.013 0.0958995 0.114298 1.725995e+09 3.942642e-07 1.780498e-07 1.958855e-09
-0.0125 0.0958995 0.114298 2.070028e+09 3.84679e-07 1.883419e-07 1.811289e-09
-0.012 0.0959056 0.114411 2.049391e+09 2.874358e-07 1.450208e-09 2.780028e-07
-0.0115 0.0959056 0.114411 1.20452e+09 1.662629e-07 4.514055e-07 1.526979e-09
-0.007 0.0958934 0.114185 2.152829e+09 4.402467e-07 1.630301e-07 1.383117e-09
-0.005 0.0958873 0.114072 1.114279e+09 1.831299e-07 4.325461e-07 1.517497e-09
-0.0035 0.0958751 0.113846 2.123454e+09 4.401087e-07 1.647123e-07 1.676077e-09
-0.001 0.0968717 0.136274 5.661588e+08 9.41727e-09 7.626097e-07 4.61677e-07
-0.0005 0.0968899 0.136808 3.176385e+08 1.333092e-06 1.035307e-08 1.644456e-07
0 0.0969336 0.138089 2.531405e+08 1.839418e-06 1.030191e-08 3.406418e-07
0.0005 0.0969846 0.139584 3.218229e+08 4.809405e-07 5.953293e-09 1.238611e-06
0.0025 0.0971048 0.143109 7.551325e+08 4.159004e-09 4.895489e-07 4.078093e-07
0.003 0.0971193 0.143536 8.213026e+08 2.321745e-07 3.653661e-09 5.936184e-07
0.0035 0.0971339 0.143963 1.841709e+09 1.541767e-09 3.436195e-07 3.648156e-07
0.004 0.0971448 0.144284 1.890978e+09 3.585522e-07 3.515601e-09 2.350874e-07
0.0045 0.0971521 0.144497 1.89099e+09 3.585522e-07 3.515612e-09 2.350874e-07
0.005 0.0971557 0.144604 2.155338e+09 3.387821e-07 2.270946e-07 6.926088e-09
0.0055 0.0971557 0.144604 2.351431e+09 2.049798e-07 3.160827e-07 3.379978e-09
0.006 0.0971594 0.144711 2.35144e+09 2.049798e-07 3.160827e-07 3.379978e-09
0.0065 0.097163 0.144818 2.348668e+09 2.027673e-07 3.162786e-07 2.88019e-09
0.007 0.097163 0.144818 2.34252e+09 2.028698e-07 3.163564e-07 2.374478e-09
0.0075 0.097163 0.144818 2.342523e+09 2.028697e-07 3.163564e-07 2.374479e-09
0.008 0.097163 0.144818 2.351986e+09 2.035846e-07 3.170265e-07 3.417317e-09
0.0085 0.0971594 0.144711 3.746903e+09 2.282918e-07 1.936518e-09 2.562058e-07
0.009 0.0971557 0.144604 2.351379e+09 2.128228e-07 3.188019e-07 1.67816e-09
0.0095 0.0971557 0.144604 2.019797e+09 4.047065e-07 2.291693e-09 1.705364e-07
0.01 0.0971484 0.14439 1.757345e+09 3.940933e-07 1.673774e-07 2.385947e-09
0.011 0.0971375 0.14407 2.261526e+09 2.378863e-07 3.168045e-07 1.144885e-09
0.0115 0.0971339 0.143963 2.261531e+09 2.378863e-07 3.168043e-07 1.144935e-09
0.012 0.0971266 0.14375 2.225169e+09 2.353804e-07 3.168823e-07 1.157401e-09
0.0135 0.0971084 0.143216 2.065443e+09 2.19776e-09 2.466763e-07 3.184934e-07
0.014 0.0971011 0.143002 3.347524e+09 1.810948e-09 2.783893e-07 2.403775e-07
0.0145 0.0970938 0.142788 2.248399e+09 3.219546e-07 1.358547e-09 2.356539e-07
0.015 0.0970865 0.142575 2.24838e+09 3.219541e-07 1.358561e-09 2.356539e-07
0.0155 0.0970756 0.142254 6.916768e+08 1.270991e-07 9.230728e-09 6.671588e-07
0.016 0.097072 0.142148 1.872368e+09 1.507199e-07 4.782307e-09 4.56246e-07
0.0165 0.0970611 0.141827 1.788279e+09 3.697463e-07 2.530612e-09 2.348569e-07
0.017 0.0970501 0.141507 1.793339e+09 3.737189e-07 3.190856e-09 2.363689e-07
0.0175 0.0970392 0.141186 1.765656e+09 1.81077e-09 3.616863e-07 2.456315e-07
0.018 0.0970283 0.140866 1.74488e+09 2.002067e-09 3.479256e-07 2.478114e-07
0.0185 0.097021 0.140652 1.744852e+09 2.002029e-09 3.479254e-07 2.478114e-07
0.019 0.0970028 0.140118 1.38865e+09 5.212315e-07 8.965362e-09 2.404984e-07
0.0195 0.0969919 0.139798 1.545735e+09 4.368609e-07 5.44391e-09 2.593928e-07
0.02 0.0969737 0.139264 1.034291e+09 6.117833e-07 3.393184e-09 2.205001e-07
0.0205 0.0969591 0.138837 1.034295e+09 6.117833e-07 3.393208e-09 2.205001e-07
0.021 0.0969409 0.138303 5.408593e+08 2.674592e-08 5.898537e-07 3.431306e-07
0.0215 0.0967589 0.132963 8.035236e+08 5.644345e-07 2.087408e-08 1.523713e-07
0.022 0.0967625 0.133069 1.755067e+08 1.355652e-06 2.779582e-08 8.511491e-08
0.0225 0.0967661 0.133176 9.162248e+07 2.685085e-06 1.170425e-07 6.491885e-07
0.023 0.0967407 0.132429 9.162342e+07 2.685084e-06 1.170426e-07 6.491884e-07
0.0235 0.0966205 0.128904 2.691785e+08 1.159262e-06 4.676158e-08 2.151279e-07
0.024 0.0966096 0.128584 2.69176e+08 1.159262e-06 4.676158e-08 2.151279e-07
0.0245 0.0966059 0.128477 2.691764e+08 1.159262e-06 4.676156e-08 2.151279e-07
0.025 0.0966314 0.129225 2.342207e+08 1.334329e-06 9.497935e-08 2.626641e-07
0.0255 0.0966569 0.129972 3.672267e+08 9.767426e-07 4.96072e-09 4.533619e-07
0.026 0.0966897 0.130933 8.09082e+07 2.125623e-06 8.922301e-08 6.677403e-07
0.0265 0.096697 0.131147 1.331423e+09 5.195317e-07 5.47785e-09 3.410633e-07
0.027 0.0967188 0.131788 1.331423e+09 5.195318e-07 5.477814e-09 3.410632e-07
0.028 0.0967516 0.132749 7.400277e+08 5.749298e-07 4.178752e-09 2.973918e-07
0.0285 0.0967698 0.133283 1.638578e+09 3.083765e-09 3.608388e-07 4.127888e-07
0.029 0.0967807 0.133603 1.752689e+09 3.355713e-07 2.693552e-09 4.303151e-07
0.0295 0.0967843 0.13371 1.04115e+09 2.800099e-07 2.516616e-09 5.435812e-07
0.03 0.0967953 0.134031 6.968506e+08 6.867181e-07 3.290999e-09 2.422358e-07
0.0325 0.0968644 0.13606 1.413678e+09 4.870593e-07 6.317366e-09 1.827689e-07
0.033 0.0968681 0.136167 1.387444e+09 1.402656e-07 5.490947e-09 5.62209e-07
0.0335 0.0968754 0.13638 1.387466e+09 1.402656e-07 5.490954e-09 5.62209e-07
0.034 0.096879 0.136487 1.843311e+09 3.640858e-07 1.734105e-07 1.572839e-09
0.0345 0.0968827 0.136594 1.83608e+09 1.318499e-07 3.590437e-09 5.265903e-07
0.035 0.0968863 0.136701 2.073824e+09 3.848395e-07 3.216927e-09 1.671982e-07
0.0355 0.0968863 0.136701 1.334492e+09 1.687183e-07 4.02513e-07 8.816237e-09
0.036 0.0968863 0.136701 2.326046e+09 2.035421e-07 3.236179e-07 2.201777e-09
0.0365 0.0968863 0.136701 2.329508e+09 2.048152e-07 3.232628e-07 1.148742e-09
0.0385 0.0968827 0.136594 1.166756e+09 5.525374e-07 1.173151e-07 3.599073e-09
0.039 0.096879 0.136487 8.959111e+08 5.937991e-07 2.106733e-09 1.120274e-07
0.0395 0.096879 0.136487 1.472564e+09 5.388424e-07 2.284942e-09 1.249432e-07
0.04 0.0968717 0.136274 1.472564e+09 5.388423e-07 2.284942e-09 1.249432e-07
0.0435 0.0968353 0.135206 1.805833e+09 4.538034e-07 1.985624e-09 1.700093e-07
0.044 0.096828 0.134992 1.266756e+09 1.807393e-07 1.800372e-09 4.482088e-07
0.0445 0.0968244 0.134885 1.489472e+09 2.199621e-09 3.416845e-07 2.695113e-07
0.045 0.0968171 0.134672 1.69118e+09 4.6628e-07 3.727818e-09 1.754261e-07
0.0455 0.0968062 0.134351 1.324907e+09 1.476664e-07 5.41774e-07 4.926071e-09
0.046 0.0968026 0.134244 2.014773e+09 3.115538e-09 2.522874e-07 3.211061e-07
0.0465 0.0967916 0.133924 1.315826e+09 2.04126e-07 2.595893e-09 4.274489e-07
0.047 0.0967843 0.13371 1.670846e+09 3.881141e-07 1.818597e-09 2.199075e-07
0.0475 0.0967734 0.13339 3.350674e+09 2.356761e-09 3.010116e-07 2.472779e-07
0.048 0.0967625 0.133069 1.612521e+09 3.327626e-09 3.939184e-07 2.453539e-07
0.0485 0.0967479 0.132642 1.225546e+09 2.341051e-09 2.61371e-07 4.178071e-07
0.049 0.0967407 0.132429 1.300902e+09 4.818492e-07 3.447451e-09 1.976263e-07
0.0495 0.0967188 0.131788 9.644306e+08 1.862255e-08 3.421074e-07 4.757697e-07
0.05 0.0966933 0.13104 5.089165e+08 2.699884e-08 3.99961e-07 5.777677e-07
0.0505 0.0966569 0.129972 3.443084e+08 1.106971e-06 3.726557e-09 3.93423e-07
0.051 0.0966387 0.129438 3.528501e+08 3.731984e-09 3.551676e-07 1.138672e-06
0.052 0.0965914 0.12805 2.231161e+08 1.769189e-06 5.847083e-09 2.992961e-07
0.0525 0.096555 0.126982 4.448054e+08 6.077369e-09 5.336989e-07 9.84703e-07
0.053 0.0965113 0.1257 6.681907e+08 6.212576e-09 6.515646e-07 4.898479e-07
0.0535 0.0964979 0.125374 4.071186e+08 9.568148e-07 6.427701e-09 3.042092e-07
0.0545 0.0964368 0.124243 8.91407e+08 2.759132e-09 7.5035e-07 2.812205e-07
0.055 0.0964063 0.123678 4.704361e+08 2.67198e-07 6.458579e-09 1.116601e-06
0.0555 0.0963574 0.122774 2.727558e+08 1.273931e-08 5.473288e-07 1.295256e-06
0.056 0.0963391 0.122435 7.373701e+08 7.568202e-07 4.641809e-09 4.265144e-07
0.0565 0.0962781 0.121305 2.809043e+08 1.371499e-06 9.023091e-09 6.173683e-07
0.057 0.0962353 0.120514 2.541894e+08 1.058263e-06 5.904581e-09 4.322829e-07
0.0575 0.0960338 0.116784 1.058154e+09 5.484828e-07 1.462569e-07 2.120024e-09
0.058 0.0960277 0.116671 1.05814e+09 5.484826e-07 1.46257e-07 2.120037e-09
0.0585 0.0960216 0.116558 1.712243e+09 4.003024e-07 1.745306e-07 2.367063e-09
0.059 0.0960094 0.116332 1.759535e+09 3.163331e-07 1.31137e-09 2.58347e-07
0.0595 0.0960033 0.116219 1.305588e+09 1.806606e-07 1.637088e-09 4.236674e-07
0.062 0.0959545 0.115315 2.032739e+09 4.53609e-07 1.560939e-07 1.39826e-09
0.0625 0.0959483 0.115202 1.176945e+09 1.908232e-07 4.113296e-07 1.368611e-09
0.063 0.0959422 0.115089 2.191881e+09 2.207024e-07 3.305817e-07 1.404699e-09
0.0645 0.0959178 0.114637 9.075252e+08 1.274544e-07 5.608794e-07 1.487613e-09
0.066 0.0958934 0.114185 1.949144e+09 2.184048e-07 3.44148e-07 1.21243e-09
0.067 0.095869 0.113733 1.965299e+09 3.523591e-07 2.284728e-07 1.688833e-09
0.0675 0.0958568 0.113507 1.255774e+09 2.006708e-07 2.18524e-09 4.23679e-07
0.068 0.0958384 0.113168 1.3194e+09 4.137894e-07 6.48792e-09 2.409397e-07
0.0685 0.0958201 0.112829 7.862535e+08 2.92009e-09 1.699721e-07 6.818536e-07
0.069 0.0957896 0.112263 9.15274e+08 6.639977e-07 4.620654e-09 1.92472e-07
0.0695 0.0957713 0.111924 1.306058e+09 1.804313e-09 3.915714e-07 2.755562e-07
0.07 0.095753 0.111585 1.331506e+09 1.659749e-09 4.347149e-07 2.489477e-07
0.0705 0.0957224 0.11102 4.970733e+08 1.492193e-08 4.232115e-07 4.670466e-07
0.071 0.0956369 0.109438 6.337643e+08 3.00547e-08 7.194663e-07 4.299463e-07
0.0715 0.0956125 0.108986 8.791328e+08 1.47728e-08 5.606393e-07 2.834567e-07
0.072 0.0955942 0.108647 8.79126e+08 1.477281e-08 5.606392e-07 2.834567e-07
0.0725 0.0955454 0.107743 6.819261e+08 1.342091e-08 6.785637e-07 2.934307e-07
0.073 0.0955087 0.107065 5.456403e+08 2.888415e-09 8.027831e-07 3.236424e-07
0.0745 0.0953744 0.104578 1.537141e+09 5.453144e-09 4.655635e-07 2.624975e-07
0.075 0.09535 0.104126 1.230755e+09 2.116168e-09 2.414947e-07 4.750565e-07
0.0755 0.0953377 0.1039 1.230742e+09 2.1162e-09 2.414948e-07 4.750566e-07
0.076 0.0953133 0.103448 1.594431e+09 1.647851e-09 3.663323e-07 2.904542e-07
0.0765 0.095295 0.103109 1.594417e+09 1.647861e-09 3.663323e-07 2.904542e-07
0.078 0.0952278 0.101866 9.187766e+08 3.465436e-09 5.680918e-07 4.158229e-07
0.0785 0.0951912 0.101188 5.740666e+08 7.244634e-09 2.485349e-07 8.189575e-07
0.079 0.0951301 0.100058 4.127772e+08 4.41357e-09 9.537018e-07 4.262321e-07
0.08 0.094947 0.096667 1.581622e+08 1.211783e-08 1.374051e-06 3.930256e-07
0.0805 0.094892 0.0956498 7.519366e+08 4.512222e-09 2.538694e-07 6.336031e-07
0.081 0.0948737 0.0953108 6.140761e+08 4.006425e-09 1.900151e-07 7.7661e-07
0.0815 0.0948371 0.0946327 1.199717e+09 3.249532e-09 5.449846e-07 3.354693e-07
0.082 0.0948065 0.0940676 3.517898e+08 1.082556e-08 2.321299e-07 1.145719e-06
0.0825 0.0947455 0.0929374 4.012203e+08 7.656882e-09 2.299292e-07 1.19574e-06
0.083 0.0946233 0.090677 4.487287e+08 4.634882e-09 4.572827e-07 7.974816e-07
0.0845 0.094455 0.0876053 9.328364e+08 6.940999e-07 6.915961e-09 2.83945e-07
0.085 0.0944404 0.0873657 5.563777e+08 6.677104e-09 8.107339e-07 5.189221e-07
0.0855 0.0943605 0.0860482 3.729127e+08 7.747523e-09 1.201492e-06 5.12253e-07
0.086 0.0943023 0.08509 4.591181e+08 4.290974e-09 6.68135e-07 9.802955e-07
0.0865 0.0942223 0.0837725 3.034474e+08 8.767987e-09 1.265535e-06 6.564279e-07
0.087 0.0941496 0.0825747 2.614774e+08 1.46205e-08 1.187922e-06 6.81226e-07
-0.04225 0.0949748 0.0849699 9.128648e+07 1.951856e-06 7.648817e-08 4.04068e-08
-0.04175 0.095287 0.0904507 5.764511e+08 2.148432e-08 8.089501e-07 4.630305e-07
-0.04125 0.0953954 0.0924852 9.744586e+08 3.030272e-09 3.465006e-07 5.950391e-07
-0.04075 0.0954194 0.0929373 7.502413e+08 3.003231e-09 2.559565e-07 6.944903e-07
-0.04025 0.0954495 0.0935024 1.079165e+09 5.267994e-07 2.60864e-09 2.673408e-07
-0.03975 0.0954736 0.0939545 6.125137e+08 5.916035e-07 2.439822e-07 1.958678e-09
-0.03925 0.0954977 0.0944066 6.125137e+08 5.916033e-07 2.439822e-07 1.958643e-09
-0.03875 0.0955097 0.0946326 1.082444e+09 1.372201e-08 5.417059e-07 2.542372e-07
-0.03825 0.0955639 0.0956498 1.710122e+08 1.340059e-08 1.73242e-06 9.88887e-07
-0.03775 0.0957204 0.0985885 1.358386e+08 9.585467e-09 8.530683e-07 1.132322e-06
-0.03725 0.0957625 0.0993796 6.852226e+08 3.990384e-09 6.837182e-07 5.455052e-07
-0.03675 0.0958167 0.100397 4.268261e+08 4.446223e-09 9.831399e-07 3.167422e-07
-0.03625 0.0958589 0.101188 4.058241e+08 9.476524e-09 9.301183e-07 2.555471e-07
-0.03575 0.0958889 0.101753 1.167997e+09 4.943649e-07 1.72225e-09 2.387127e-07
-0.03525 0.095907 0.102092 1.645461e+09 2.015608e-07 1.675168e-09 5.013717e-07
-0.03425 0.0959491 0.102883 8.647546e+08 8.218473e-09 5.786189e-07 3.628562e-07
-0.03375 0.0959853 0.103562 8.96805e+08 1.8577e-09 5.335623e-07 3.633455e-07
-0.03225 0.0960635 0.105031 6.47885e+08 7.059925e-07 1.993416e-09 2.000948e-07
-0.03175 0.0960876 0.105483 1.077155e+09 5.16617e-07 1.696735e-09 2.344066e-07
-0.02975 0.0961719 0.107065 8.875214e+08 6.258186e-07 1.922226e-09 2.137283e-07
-0.02425 0.0963223 0.109891 8.294145e+08 2.532685e-07 3.114797e-09 4.80929e-07
-0.02375 0.0963344 0.110117 1.162042e+09 4.428495e-07 2.363157e-09 2.468351e-07
-0.01925 0.0965029 0.113282 1.297502e+09 4.715041e-07 1.747205e-09 1.957438e-07
-0.01875 0.096515 0.113508 8.914108e+08 4.983378e-07 2.455868e-07 1.716301e-09
-0.01825 0.096521 0.113621 5.573708e+08 7.55921e-07 1.714298e-07 2.11702e-09
-0.01625 0.0965511 0.114186 1.864443e+09 3.662678e-07 1.813145e-07 1.178313e-09
-0.01575 0.0965571 0.114299 1.864443e+09 3.662678e-07 1.813145e-07 1.178302e-09
-0.01525 0.0965631 0.114412 1.766625e+09 3.84946e-07 1.367703e-09 1.989303e-07
-0.01375 0.0965751 0.114638 1.402271e+09 4.916894e-07 1.409075e-07 3.501696e-09
-0.01325 0.0965751 0.114638 1.480728e+09 5.199583e-07 1.170048e-07 2.21077e-09
-0.01175 0.0965691 0.114525 1.451127e+09 5.231057e-07 1.158631e-07 2.276126e-09
-0.00525 0.0965511 0.114186 1.709396e+09 3.868826e-07 1.773245e-07 1.140555e-09
-0.00475 0.0965451 0.114073 2.176603e+09 2.931968e-07 2.463204e-07 1.175418e-09
-0.00075 0.096515 0.113508 1.396893e+09 1.868122e-07 4.898633e-07 1.811092e-09
-0.00025 0.0975253 0.136595 2.568555e+08 1.719248e-06 1.943279e-08 1.353961e-07
0.00025 0.0975504 0.137342 4.589534e+08 1.114258e-06 4.404795e-09 4.163004e-07
0.00075 0.0975862 0.13841 6.365242e+08 9.078618e-07 4.666388e-09 5.109909e-07
0.00125 0.0976184 0.139372 6.3653e+08 9.078617e-07 4.666384e-09 5.10991e-07
0.00225 0.0976757 0.14108 4.609965e+08 2.838717e-09 5.479241e-07 8.103841e-07
0.00275 0.0977222 0.142469 3.40649e+08 8.925059e-09 8.754432e-07 4.1267e-07
0.00375 0.0977545 0.14343 7.326704e+08 7.848823e-07 2.996772e-09 1.723962e-07
0.00425 0.0977688 0.143857 1.890935e+09 3.585522e-07 3.515633e-09 2.350874e-07
0.00475 0.0977759 0.144071 1.89099e+09 3.585522e-07 3.515626e-09 2.350874e-07
0.00525 0.0977831 0.144284 1.330503e+09 4.137808e-07 6.964656e-09 2.018738e-07
0.00575 0.0977903 0.144498 2.321353e+09 2.167945e-07 3.161471e-07 3.812544e-09
0.00625 0.0977938 0.144605 1.900476e+09 3.598676e-07 1.711488e-07 1.924013e-09
0.00675 0.0977974 0.144711 1.84703e+09 3.782499e-07 3.544307e-09 1.800574e-07
0.00725 0.0977974 0.144711 2.311998e+09 2.02727e-07 3.160758e-07 3.786547e-09
0.00775 0.0977974 0.144711 1.942737e+09 3.750194e-07 2.649734e-09 1.789316e-07
0.00925 0.0977974 0.144711 1.809687e+09 3.894706e-07 2.491147e-09 1.858836e-07
0.00975 0.0977938 0.144605 2.019804e+09 4.047067e-07 2.291694e-09 1.705364e-07
0.01025 0.0977867 0.144391 1.757321e+09 3.940935e-07 1.673773e-07 2.385959e-09
0.01125 0.0977759 0.144071 2.261535e+09 2.378865e-07 3.168045e-07 1.144896e-09
0.01325 0.0977545 0.14343 1.537815e+09 4.337054e-07 1.489374e-09 1.82458e-07
0.01375 0.0977473 0.143216 1.614184e+09 3.889005e-07 1.887872e-09 1.901427e-07
0.01425 0.0977366 0.142896 1.614162e+09 3.889006e-07 1.88787e-09 1.901428e-07
0.01525 0.0977222 0.142469 1.90227e+09 3.41759e-07 1.509132e-09 2.255353e-07
0.01575 0.0977115 0.142148 6.916939e+08 1.270991e-07 9.230745e-09 6.671588e-07
0.01625 0.0977043 0.141935 1.186401e+09 4.418302e-07 3.776141e-09 1.825541e-07
0.01675 0.0976936 0.141614 1.585896e+09 4.471081e-07 2.945843e-09 1.820939e-07
